ply
format ascii 1.0
comment PCL generated
element vertex 1078
property float x
property float y
property float z
property uchar red
property uchar green
property uchar blue
element face 0
element camera 0
property float view_px
property float view_py
property float view_pz
property float x_axisx
property float x_axisy
property float x_axisz
property float y_axisx
property float y_axisy
property float y_axisz
property float z_axisx
property float z_axisy
property float z_axisz
property float focal
property float scalex
property float scaley
property float centerx
property float centery
property int viewportx
property int viewporty
property float k1
property float k2
end_header
2.0704591 0.23646131 0.80310172 147 159 159
2.0852723 0.23056766 0.80717814 145 159 159
2.1734047 0.23782188 0.80952263 147 161 162
2.0786147 0.2492252 0.80840838 145 159 159
2.0564771 0.25625893 0.80983955 162 172 173
2.0519443 0.26382047 0.80274582 155 167 167
2.0688038 0.2672815 0.80871534 146 160 160
2.0349391 0.27275404 0.80691719 136 150 150
2.0934105 0.28662983 0.80108023 168 178 177
2.1721416 0.28256279 0.80069947 147 161 162
2.0827219 0.29367405 0.80774033 152 164 164
2.1521132 0.30056554 0.80070937 147 161 162
2.0787597 0.31476372 0.80612308 150 164 164
2.0914161 0.31042755 0.80248219 168 178 179
2.1403441 0.31959516 0.80365121 151 165 166
2.0306449 0.33783966 0.80996281 148 160 160
2.0780683 0.33354819 0.80407459 151 165 165
2.0806036 0.33275759 0.80079025 167 179 179
2.1990886 0.3322401 0.80162448 143 154 158
2.0928519 0.34291297 0.80333 144 158 158
2.0318739 0.35223958 0.80015111 149 165 165
2.0636909 0.35260129 0.80736208 157 168 170
2.0779233 0.35413384 0.80556047 150 164 164
2.0874269 0.35802296 0.80528605 164 179 176
2.1646259 0.35591561 0.80599213 161 171 172
2.1961627 0.35317814 0.80788577 150 164 167
2.0766304 0.36971375 0.80812323 153 165 165
2.0995891 0.36555675 0.80598348 153 167 167
2.0376444 0.37316453 0.80104345 138 156 156
2.0646367 0.37454677 0.80773228 155 165 167
2.1607552 0.37845296 0.80962688 159 169 168
2.0699906 0.38789499 0.80934274 154 168 168
2.0854323 0.38182065 0.80668801 163 178 175
2.1032939 0.38779473 0.80766344 151 165 166
2.1996212 0.38739401 0.80008203 153 163 164
2.2240393 0.38364398 0.80147231 146 160 161
2.0507774 0.39559439 0.80482411 146 164 166
2.0615902 0.39574111 0.80653059 160 172 172
2.1056867 0.39912176 0.80082422 148 164 163
2.1499329 0.3968302 0.80089742 159 169 170
2.0834379 0.40561837 0.80808991 167 178 174
2.1059878 0.40992197 0.80901963 148 163 160
2.2197573 0.40499926 0.80737728 153 167 170
2.0575566 0.41678438 0.8055203 151 167 167
2.1319563 0.41663659 0.80060548 164 176 176
2.1495893 0.41886663 0.80128556 155 165 166
2.1955869 0.4103989 0.80372125 165 175 174
2.0726569 0.42757234 0.80637586 151 161 160
2.0594826 0.43871313 0.80569643 161 175 176
2.0634305 0.43812945 0.80701339 147 165 165
2.1837277 0.43201005 0.80453777 163 171 173
2.2580426 0.43877864 0.804048 155 166 168
2.1299191 0.44094622 0.8020376 156 168 168
2.1492457 0.44090301 0.80167377 145 155 156
2.0301368 0.45536247 0.80775893 155 171 171
2.0660796 0.45867577 0.80666327 150 164 165
2.0706704 0.45127603 0.80777228 175 185 184
2.1229854 0.45110482 0.80147219 158 170 168
2.175781 0.45431811 0.80676562 164 173 172
2.0644226 0.46145171 0.80763918 159 173 173
2.1239789 0.46439201 0.80212426 166 180 181
2.1448655 0.46207568 0.80080032 154 165 167
2.2503781 0.46020716 0.80893493 145 156 158
2.0301909 0.47650173 0.80770898 153 169 168
2.0560153 0.472045 0.80465162 175 187 185
2.071897 0.47996527 0.80754942 148 162 163
2.1207979 0.47465178 0.80127269 161 171 173
2.1475048 0.47293192 0.80293632 150 166 166
2.1591263 0.47479239 0.8057915 166 176 177
2.0277357 0.48917341 0.80895662 152 168 168
2.0693662 0.48427424 0.80958349 158 172 172
2.0792031 0.48799431 0.80571347 152 171 169
2.1219449 0.48865986 0.80355394 160 176 176
2.1445227 0.48407009 0.80118775 154 168 169
2.0342643 0.49862537 0.80926627 154 173 169
2.0501456 0.4946681 0.8046478 174 184 185
2.071378 0.49976835 0.8059631 149 165 165
2.0975778 0.49456263 0.80825591 160 172 172
2.1224387 0.49909782 0.80253196 160 170 171
2.1377404 0.49082157 0.80350149 154 170 170
2.151211 0.49701181 0.80801046 166 178 178
2.284929 0.49491936 0.80374444 156 167 169
2.0229144 0.50740159 0.80565852 147 163 163
2.0792584 0.50964814 0.80566227 134 153 151
2.1332033 0.50991303 0.80547827 154 168 168
2.1411531 0.50535369 0.80062789 140 152 152
2.0433102 0.51696098 0.80429029 161 171 172
2.0901794 0.51433295 0.80634958 151 163 163
2.111146 0.51079607 0.80194533 175 189 189
2.2769337 0.51689816 0.80866325 152 163 165
2.0223162 0.52660036 0.8040511 151 167 167
2.0740271 0.52031469 0.80561304 148 164 164
2.1164229 0.5217458 0.8008737 161 171 172
2.1234446 0.52748102 0.80599374 150 164 164
1.9895444 0.53700298 0.80919713 150 168 168
2.0374551 0.53940642 0.80427587 176 186 187
2.0755918 0.53633523 0.80337548 151 167 167
2.0833328 0.53232813 0.80717605 152 172 171
2.1071062 0.53588796 0.80229354 166 179 179
2.1823196 0.53077996 0.80054092 164 176 174
2.1095111 0.54366845 0.80531514 155 169 169
2.1142354 0.54529274 0.80067414 156 170 170
2.0784152 0.55423731 0.80350953 156 170 170
2.0833883 0.55402398 0.80712473 160 179 177
2.0959191 0.55789626 0.80287659 166 179 178
2.1742642 0.5533933 0.80279928 164 174 173
2.0304074 0.56105876 0.80750901 163 179 179
2.1139252 0.56117082 0.80443692 161 175 176
2.1223226 0.56967556 0.80885732 161 175 175
1.9978064 0.57723582 0.80982357 150 169 167
2.0737243 0.57368988 0.80283701 159 173 173
2.1662087 0.57600665 0.80505764 167 177 176
2.2109318 0.57292891 0.80880719 160 172 172
2.028547 0.58324623 0.8059442 162 176 175
2.1078756 0.5816431 0.80212724 163 177 178
2.175961 0.58783686 0.80411488 161 173 173
2.000344 0.59691775 0.80948818 151 169 169
2.0694323 0.59338278 0.80154544 164 176 176
2.0777507 0.59686136 0.80426037 164 174 175
2.2231002 0.59309727 0.80104893 167 176 175
2.0276866 0.608549 0.80701244 165 177 177
2.1546612 0.60598367 0.80418229 162 174 174
1.9996791 0.61560589 0.80785781 150 166 166
2.0131602 0.61876231 0.80902743 163 177 178
2.0749602 0.61700034 0.80365193 158 169 170
2.1076732 0.61593378 0.80007565 159 169 168
2.1251235 0.61275852 0.80027539 149 165 165
2.2195907 0.61756814 0.80506444 165 174 173
2.1458499 0.62747186 0.80872107 163 175 175
2.2138283 0.62639832 0.80049944 156 168 168
1.9949064 0.63349664 0.8031041 159 175 176
2.0257263 0.63193929 0.80839038 172 184 184
2.0679631 0.63546723 0.80901581 161 172 174
2.0783386 0.63952821 0.80518311 149 161 162
2.1185148 0.63083905 0.80166847 154 170 170
2.1150336 0.64985073 0.80390954 156 170 171
2.1216569 0.64436817 0.80606699 163 173 172
2.2008762 0.64734071 0.80373704 164 174 175
2.2160456 0.64213729 0.80908948 168 178 177
0.22812614 0.65659106 0.80271298 218 215 211
0.23779541 0.65760314 0.80054009 221 220 216
0.24429481 0.65612602 0.80546343 222 223 217
0.25951564 0.65581977 0.80734813 222 223 217
0.26715133 0.6585719 0.80152345 220 221 215
1.9983246 0.65279454 0.8046003 149 165 165
2.0019486 0.65714043 0.8044706 163 177 178
2.0237658 0.65532959 0.80976832 174 186 186
2.0658946 0.65638775 0.80819923 164 178 179
0.24974513 0.66038716 0.80177259 218 219 214
0.26252854 0.66449076 0.8046422 219 221 216
0.27436268 0.66657734 0.80493867 219 220 215
0.28476655 0.66452146 0.80547005 220 221 216
0.29420751 0.66629171 0.80177623 222 223 218
0.30825245 0.6678741 0.80353224 224 225 219
0.32395041 0.66584492 0.80740148 227 228 222
2.0767539 0.66079736 0.8053866 160 172 172
2.0836661 0.66250312 0.80686826 160 174 174
2.1146789 0.66988707 0.8070128 154 168 169
2.1879241 0.66828299 0.80697453 165 173 175
0.3202284 0.67083693 0.80081153 224 223 219
0.33207333 0.67221051 0.8001228 225 224 220
0.34758881 0.67393744 0.80483568 227 228 222
0.35845286 0.6773386 0.80298626 227 228 222
0.3754763 0.67744654 0.80641901 231 232 224
0.3954457 0.67728335 0.80378968 233 234 226
2.0072801 0.67455792 0.80685335 157 173 173
2.0668356 0.67821789 0.80856752 166 180 181
2.1280053 0.67077446 0.80914277 151 160 159
2.1303537 0.6784898 0.80118513 157 169 169
2.1441956 0.67113006 0.8014226 171 183 183
0.37119716 0.6808669 0.80352592 227 228 223
0.38250971 0.68088335 0.80108261 227 228 223
0.41860533 0.68262517 0.80724537 232 233 227
2.0764217 0.68210942 0.80576199 158 172 172
2.0837216 0.68419892 0.80681694 158 172 172
2.1070333 0.68731475 0.80807018 155 169 169
2.1727407 0.68415916 0.80117476 158 168 169
0.50856924 0.69321257 0.80871665 235 236 230
0.51728696 0.69603807 0.80206478 237 238 232
0.53723502 0.69870412 0.80718291 238 239 233
2.0130327 0.69532752 0.80781138 146 164 164
2.063997 0.69393319 0.80237788 174 184 185
2.1257925 0.69459331 0.80894095 163 171 173
0.54607546 0.70154089 0.80043054 238 239 233
0.56488061 0.70212519 0.80327457 237 238 232
0.58334577 0.70199794 0.80537701 238 239 233
2.0760894 0.70342147 0.80613738 161 173 173
2.083777 0.70589477 0.80676562 161 175 175
2.134042 0.70169437 0.80284011 159 171 171
2.1704843 0.70844859 0.80096895 161 170 169
-0.067552224 0.71821594 0.8087219 154 110 83
-0.053188667 0.71122885 0.80323756 155 111 76
-0.043520927 0.71197402 0.80985606 150 105 76
-0.039428174 0.71050131 0.80438572 146 103 68
-0.025709659 0.7120806 0.80800343 145 102 70
-0.01880312 0.71572655 0.80314541 158 115 80
-0.0048457384 0.71803981 0.80751431 157 114 80
0.67539597 0.71933168 0.80031115 237 238 232
2.0187931 0.71615952 0.80876827 154 170 170
2.1150451 0.71554238 0.80546397 160 170 169
-0.23298597 0.72427368 0.80134261 145 122 116
-0.11549173 0.72545075 0.80017686 142 105 78
-0.1018474 0.72398877 0.80050063 142 99 65
-0.026237071 0.72227395 0.80283582 154 111 77
-0.0060065687 0.72500622 0.80118597 163 120 85
0.002225861 0.72014409 0.80093539 158 115 80
0.015532896 0.726201 0.8035605 163 119 83
0.038049102 0.72522962 0.80120653 166 124 86
0.052641302 0.72589523 0.80381644 169 127 89
0.067429006 0.7272923 0.80720878 166 123 88
0.074753046 0.72942042 0.80042148 167 124 89
0.6995793 0.72435319 0.80779237 237 238 232
0.71149075 0.72991025 0.80326205 237 238 232
0.72777843 0.7275033 0.80931509 233 234 229
2.0717139 0.72221363 0.80619919 166 177 177
2.0838325 0.72759062 0.80671436 157 173 172
2.1296716 0.72224766 0.80195588 162 172 173
2.1440928 0.72528291 0.80245936 149 163 163
2.2189395 0.72328377 0.80101359 166 170 171
-0.21645455 0.73486787 0.80571884 255 252 246
-0.20413794 0.73675537 0.80947071 208 190 186
-0.19035001 0.73372424 0.80815071 126 113 104
-0.18347342 0.73501444 0.80098021 148 118 107
-0.17391321 0.73458248 0.80659127 125 102 98
-0.15824011 0.73946166 0.80915964 255 255 250
-0.14443006 0.73719442 0.80865252 252 254 249
-0.12968336 0.73010838 0.80316561 255 255 246
0.060147434 0.73188359 0.8090806 167 126 94
0.070916772 0.73352623 0.80848628 168 127 95
0.08998996 0.7330693 0.80611348 167 129 93
0.10496423 0.73211014 0.80706358 165 125 89
0.12784149 0.73554349 0.8034178 163 127 93
0.14343835 0.73679799 0.80665088 160 124 90
0.15511173 0.7384851 0.80475438 159 124 92
0.73254317 0.73086929 0.80647385 237 238 232
0.75316894 0.73112398 0.80897975 237 238 232
0.76352543 0.73469293 0.80220771 236 239 232
2.0213349 0.73587275 0.8084324 143 159 159
2.1090512 0.73794985 0.80380774 160 170 169
2.1682279 0.73273796 0.80076319 156 165 164
2.2133908 0.73085141 0.80655438 153 161 163
0.12680393 0.74446797 0.80832005 162 123 92
0.13762239 0.74461353 0.80590677 161 122 93
0.14847976 0.74475431 0.80347848 159 122 95
0.15987122 0.74631959 0.80264193 151 115 89
0.16685005 0.74017256 0.80281746 153 119 91
0.17108315 0.74716175 0.80097544 142 108 81
0.18348889 0.7443496 0.80903339 137 103 76
2.0600009 0.74161214 0.80518669 175 187 187
2.0754249 0.74604541 0.80688822 160 172 172
2.1263096 0.74306935 0.80138803 158 170 170
2.1333365 0.74170142 0.80276215 155 167 167
2.2105401 0.74686229 0.80336833 161 167 167
0.81872827 0.75528306 0.80412221 196 197 191
2.0174148 0.75316083 0.80551404 145 161 161
2.0909231 0.75181746 0.80940026 157 176 174
2.1267416 0.759534 0.80417979 152 167 164
2.2873647 0.75899589 0.80622506 151 157 157
2.0541458 0.76404476 0.80521363 172 184 182
2.1219416 0.76346517 0.80050087 158 170 168
2.0167134 0.77156776 0.80388844 150 166 166
2.1191094 0.7768262 0.80528992 156 168 166
2.0434809 0.78458273 0.80351084 167 179 177
2.0634904 0.78435552 0.80723977 156 170 171
2.019243 0.79118723 0.80355418 142 156 157
2.1125193 0.7943992 0.80666751 149 159 158
2.0113528 0.80644381 0.80819035 159 175 174
2.0376441 0.80679572 0.80352503 170 182 180
2.0533543 0.80184329 0.80324662 159 173 173
2.098659 0.80879247 0.80598438 153 164 160
2.3258803 0.80303299 0.8006978 159 165 165
2.0250158 0.81211293 0.80450952 149 161 161
2.0122662 0.82763404 0.80854785 162 174 174
2.0308528 0.82854211 0.80318785 165 177 175
2.0542867 0.82347417 0.80361158 154 166 164
2.0858424 0.82336271 0.80555284 144 159 156
2.3119206 0.82560468 0.80418724 159 165 165
2.0307965 0.83310127 0.80546385 145 159 160
2.125036 0.83043814 0.80037934 149 161 159
2.149461 0.83457118 0.80088282 149 158 155
2.0481658 0.8422482 0.80119962 157 169 167
2.0823765 0.84179908 0.80773628 149 161 159
2.2924228 0.84619331 0.80579948 158 162 161
2.0288739 0.85215181 0.80457872 168 178 177
2.0398364 0.85552067 0.80770564 146 157 159
2.0758185 0.85615551 0.80918932 149 159 157
2.1018212 0.8578909 0.80425793 153 159 157
2.1281078 0.8537752 0.80146825 150 160 159
2.1418395 0.85190427 0.80207288 146 155 152
2.0561514 0.8667357 0.80434144 153 165 163
2.0633683 0.86966026 0.80584478 147 157 156
2.1279995 0.8663395 0.80153286 144 153 152
2.2739084 0.86701488 0.80770946 160 162 161
2.0230558 0.87414563 0.80457985 162 171 170
2.0423822 0.87526506 0.80736923 137 147 148
2.0900404 0.8784346 0.80205047 159 168 165
2.1281645 0.87593305 0.80141586 145 156 152
2.200315 0.87958258 0.801296 160 162 157
2.1214211 0.88378912 0.80295455 138 147 142
2.1584628 0.88000059 0.80093986 148 150 149
2.0210805 0.89771342 0.80596828 158 164 162
2.0449281 0.89500958 0.80703282 132 140 142
2.068177 0.89308637 0.8090741 150 159 156
2.0700808 0.89392084 0.80852675 146 152 150
2.1199019 0.8942979 0.80280542 141 147 147
2.1252058 0.89681727 0.8002224 139 148 143
2.0880065 0.90270239 0.80348003 156 161 157
2.1210635 0.90399128 0.80608356 136 143 136
2.1963587 0.90532541 0.80533272 153 154 148
2.0409472 0.91182899 0.80412245 130 139 138
2.0697491 0.91520137 0.80890161 141 146 140
2.1235847 0.91784889 0.80446672 138 140 137
2.1741078 0.91178054 0.80743694 145 147 142
2.1165605 0.92223388 0.80805498 129 131 126
2.1878226 0.92928809 0.80772579 148 148 140
2.0402176 0.93001711 0.80250061 128 130 129
2.0694172 0.93648183 0.80927646 130 135 129
2.0994024 0.93278104 0.8096354 150 151 146
2.2832692 0.93110764 0.80048609 155 155 153
2.0427513 0.94966781 0.80216575 115 115 113
2.1262608 0.941037 0.80580986 132 133 127
1.0474778 0.9531911 0.800394 137 111 98
2.0690856 0.9577623 0.80965132 125 124 119
2.1066346 0.95593536 0.80525309 132 131 125
2.1451437 0.95381826 0.80048245 146 143 136
2.244833 0.95542055 0.80215025 148 147 142
2.2790754 0.95797479 0.80740249 149 148 146
1.4134864 0.96691716 0.80441368 187 147 123
1.4385955 0.96625948 0.80498165 176 134 108
2.045285 0.96931863 0.80183095 102 101 96
2.1259196 0.96291596 0.80619526 127 126 122
2.1544139 0.96550411 0.80244851 122 123 118
1.0767461 0.97817338 0.80864638 216 220 221
1.0994368 0.97489297 0.8077082 190 172 148
1.101994 0.97299153 0.80453169 199 199 189
1.1421041 0.97780472 0.80034691 186 201 206
1.3967276 0.97654206 0.80411166 215 201 185
1.405149 0.97144246 0.80244899 94 56 38
1.4535859 0.9742704 0.80829406 186 145 113
1.4809628 0.97345936 0.80167109 170 131 100
1.5291711 0.97847718 0.80849499 255 251 251
2.1090157 0.97571075 0.80270648 119 114 110
2.1430564 0.97872329 0.80194962 133 130 125
1.2638147 0.98406804 0.80703533 246 254 253
1.2911897 0.98752999 0.80585349 173 150 140
1.340064 0.98882139 0.80216545 169 149 148
1.3845942 0.98711455 0.80367672 253 246 242
1.3937609 0.98468459 0.80372119 240 237 231
1.5177742 0.98506737 0.80665261 156 122 97
1.5319717 0.98653013 0.80549419 198 172 171
1.5489581 0.98146152 0.80141836 204 190 179
1.5553219 0.98371363 0.80237621 210 186 174
1.5603722 0.98208648 0.80845433 214 187 170
1.576447 0.98362273 0.8081044 255 252 244
1.5845525 0.98008382 0.80554569 227 205 191
1.6236472 0.98935294 0.80714661 208 179 173
1.6529114 0.98847789 0.80386215 142 109 104
2.0992401 0.98041958 0.80651927 114 109 103
2.118542 0.98151964 0.80434185 114 107 101
2.1499126 0.98403102 0.804506 111 112 106
2.1672714 0.98537016 0.80681342 122 119 112
2.2406077 0.98192739 0.80621046 145 140 136
1.1525216 0.99153423 0.80967808 188 208 207
1.2525636 0.99169439 0.80284309 193 206 212
1.2771928 0.99931979 0.80630314 206 215 212
1.3186803 0.99042702 0.8040303 252 255 250
1.3216795 0.99355245 0.80606389 255 255 247
1.3337593 0.9906171 0.80487037 172 154 144
1.3539343 0.99517906 0.80188239 254 247 244
1.3757378 0.99527282 0.80561471 233 218 208
1.4097016 0.996764 0.80615997 254 255 249
1.4574308 0.9983871 0.80513674 199 152 126
1.4608622 0.99017072 0.80565321 198 147 116
1.5714276 0.99804378 0.80949193 238 225 217
1.5908824 0.99253094 0.80326295 255 253 248
1.6035806 0.99102426 0.80215001 205 182 164
1.6278142 0.99041361 0.80891114 197 163 151
1.6707283 0.99327958 0.80492109 170 134 138
1.68299 0.99973804 0.8072058 156 129 122
1.7012954 0.99948382 0.80940622 171 145 130
2.0510981 0.99055684 0.80278099 96 83 77
2.1069381 0.99643165 0.80191821 114 105 98
2.1392083 0.99933922 0.804847 103 103 95
1.3044825 1.0011847 0.80079883 163 135 123
1.3285096 1.0003461 0.80253786 253 254 249
1.3928843 1.0061853 0.80177879 238 198 186
1.4367497 1.0084162 0.80231857 216 180 166
1.5553229 1.0048454 0.8061164 142 119 103
1.6893021 1.0005138 0.80965817 190 159 141
1.705837 1.0098253 0.80271697 207 192 187
1.9745767 1.0063554 0.806494 77 50 29
1.9992481 1.0077968 0.80318046 81 45 31
2.0503523 1.00862 0.80116129 57 35 24
2.0970273 1.0042384 0.80631745 125 107 97
2.1182022 1.0033251 0.80472594 112 103 94
2.1361804 1.0014455 0.8017754 128 115 109
2.1565461 1.0059952 0.8034336 116 106 97
1.2607189 1.0135498 0.8097502 190 200 199
1.2774415 1.0134227 0.80530673 178 198 199
1.3177527 1.0129918 0.80824578 163 137 124
1.5181165 1.0165032 0.80374658 167 135 114
1.5886371 1.0133039 0.80861366 251 254 247
1.6192262 1.0198777 0.80944192 226 221 215
1.7255764 1.0141877 0.80897051 179 165 156
1.763495 1.0177917 0.80511796 253 254 250
1.8305216 1.0192119 0.80177039 199 175 163
1.8950975 1.0160561 0.80607295 159 139 130
1.9025335 1.0183035 0.80452091 216 182 172
2.0026124 1.011353 0.8097502 84 52 29
2.0510027 1.0131173 0.80515093 55 27 15
2.0626776 1.0181513 0.80689591 55 29 16
2.0992029 1.0195528 0.80026352 81 53 41
2.1068079 1.0197526 0.801588 52 25 16
2.122304 1.0112422 0.80344248 51 34 27
2.3295045 1.0126513 0.80523646 151 147 144
1.3268321 1.0235515 0.80123723 150 150 140
1.3486788 1.026002 0.80610442 167 149 137
1.3562567 1.0240085 0.80313814 196 198 187
1.3663192 1.0253162 0.80099404 181 192 198
1.3807106 1.020364 0.80197656 169 164 171
1.4193354 1.020366 0.8011415 215 186 170
1.6408339 1.0208968 0.80557764 177 153 151
1.6656525 1.0237405 0.80319297 146 127 123
1.6763934 1.0208601 0.80808449 255 242 235
1.7619355 1.0201432 0.80729842 254 255 250
1.7891585 1.0279527 0.80754054 255 254 252
1.794426 1.0248141 0.80894011 254 253 248
1.803652 1.0216391 0.80077642 252 254 253
1.8136131 1.0266799 0.80862176 255 253 244
1.8469474 1.0268557 0.8004781 202 179 171
1.8528223 1.0273054 0.80700541 174 155 148
1.8703777 1.0296718 0.80949593 248 222 209
1.8845966 1.0298764 0.80612171 151 131 120
1.917536 1.0280602 0.80047476 120 90 79
1.9241632 1.0295063 0.80365241 113 83 75
1.9383252 1.0222254 0.80745393 173 149 139
1.9478077 1.0222049 0.8030771 159 130 124
1.9806161 1.0248073 0.80374664 189 150 135
2.0215433 1.0210363 0.80239749 86 54 31
2.0366042 1.0270835 0.80088782 89 52 34
2.0805888 1.0293398 0.80443347 68 36 21
1.4856812 1.0313163 0.80396724 170 134 120
1.7440416 1.0378175 0.8077296 255 253 248
1.7843988 1.0347083 0.80315185 252 254 249
1.8276489 1.0318412 0.80879122 255 255 248
1.8664074 1.0326351 0.80926824 223 189 177
1.9138197 1.0345014 0.80645007 151 118 103
1.9336662 1.0335275 0.80762267 174 145 131
1.9655511 1.0334941 0.80031031 178 147 142
1.9714159 1.0341524 0.80037421 169 142 131
2.0247116 1.0342486 0.80704165 128 100 78
2.3149476 1.0361881 0.80887514 125 118 112
1.8049994 1.0496598 0.80263638 255 253 252
1.931716 1.0456128 0.80695337 208 169 154
2.0203516 1.0409906 0.80235887 173 140 123
2.1999712 1.049135 0.80840075 86 50 36
1.9096289 1.056761 0.80540681 255 240 234
2.0095673 1.0574502 0.80311835 147 109 96
2.0930972 1.0517576 0.80559134 88 43 24
2.0995605 1.0784085 0.80266196 113 72 54
2.2655807 1.0739374 0.80917811 96 59 50
1.6830596 -1.4856448 0.81013376 253 255 254
1.6957827 -1.4815191 0.81009877 253 255 254
1.6296972 -1.4643214 0.81835026 253 255 254
1.6544167 -1.4660355 0.81052876 253 255 254
1.6867263 -1.469308 0.81183112 253 255 254
1.7056613 -1.4684663 0.81329066 253 255 254
1.8649356 -1.4691963 0.81321555 142 146 147
1.6697657 -1.4582735 0.81651896 253 255 254
1.6932538 -1.4553387 0.81491047 253 255 254
1.7109375 -1.4513836 0.81428003 253 255 252
1.7383708 -1.4527599 0.81687182 253 254 255
1.876744 -1.4572384 0.8148582 174 179 181
1.9094831 -1.4593937 0.81117666 146 152 152
1.7016927 -1.4428426 0.81891274 253 254 255
1.7740468 -1.4406004 0.81351954 250 255 255
1.8270212 -1.4404005 0.81719255 184 192 195
1.8812838 -1.4414808 0.81326717 157 161 164
1.721779 -1.4388121 0.81790698 253 254 255
1.8463438 -1.4336586 0.81734836 142 150 152
1.910395 -1.438235 0.81153363 134 135 137
1.7806305 -1.4254122 0.81649321 166 174 177
1.8178511 -1.4289513 0.8164649 159 168 167
1.8843417 -1.4241397 0.81452793 139 145 145
1.7713583 -1.4141083 0.81692684 163 171 174
1.7872195 -1.410098 0.81946898 147 155 158
1.8800652 -1.4164001 0.81972063 142 148 148
1.8873997 -1.4067355 0.81578857 125 134 133
1.8874501 -1.3870454 0.81574202 120 129 128
1.8171954 -1.370239 0.81262517 138 142 145
1.8844926 -1.365164 0.81438845 121 127 127
1.8377876 -1.353725 0.81924099 128 132 131
1.8849516 -1.346176 0.81315398 117 125 124
1.8376323 -1.3311098 0.81763828 122 124 123
1.8906094 -1.3301038 0.81690919 110 119 118
1.8740594 -1.3263353 0.81692141 123 125 124
1.8820574 -1.325758 0.81099248 107 112 115
1.8936679 -1.3124789 0.8181693 114 120 120
1.7857497 -1.3066421 0.818497 125 129 130
1.8817623 -1.3068291 0.81132591 112 117 120
1.8331425 -1.2983841 0.81958848 119 125 125
1.8937185 -1.2927259 0.81812257 110 116 116
1.8547475 -1.2874317 0.81993657 110 115 118
1.8823302 -1.2722617 0.81049037 112 118 114
1.893769 -1.2729727 0.8180759 108 117 116
1.885033 -1.2512989 0.81013322 112 117 113
1.8938196 -1.2532197 0.81802917 108 118 117
1.8938701 -1.2334666 0.81798244 106 115 112
1.8814129 -1.2245541 0.81993419 111 117 117
1.8879037 -1.2098348 0.815323 104 110 106
1.8879541 -1.1901448 0.81527644 101 103 98
1.8940219 -1.1742073 0.81784236 103 105 102
1.8714924 -1.1690736 0.81067115 103 103 101
1.8296376 -1.1503699 0.81766164 96 95 90
1.8739589 -1.1536225 0.81234741 95 95 91
1.8910637 -1.1526096 0.81648952 92 91 89
1.8362981 -1.1464039 0.81609017 81 80 76
1.8018432 -1.1348848 0.81825495 111 110 105
1.8836244 -1.1390692 0.81417519 112 111 106
1.7582816 -1.129952 0.81800485 119 116 109
1.8160615 -1.1213474 0.81151551 105 104 99
1.8284214 -1.1273105 0.81545341 107 107 98
1.8708204 -1.1292874 0.81703985 105 102 93
1.8850965 -1.1292614 0.81383067 113 110 103
1.8301938 -1.111516 0.81341636 112 109 102
1.8819145 -1.1186666 0.81537712 112 115 106
1.7925843 -1.1004392 0.81793427 94 89 85
1.8421667 -1.1032245 0.8143447 95 95 87
1.8601513 -1.1008772 0.81087494 100 97 88
1.8791291 -1.1060389 0.81117207 106 104 92
1.7756481 -1.0925224 0.81584775 103 99 88
1.8285284 -1.0916464 0.81458688 112 112 102
1.7893558 -1.0854232 0.81951165 106 99 93
1.8082559 -1.0826296 0.81806201 103 100 91
1.7322932 -1.0727136 0.81961691 99 94 88
1.7712809 -1.0786846 0.81970704 101 98 91
1.7840954 -1.0773247 0.81509215 105 100 96
1.6976813 -1.064276 0.818699 99 92 84
1.7317113 -1.0652704 0.81463289 99 95 84
1.7718979 -1.0648699 0.81627917 96 91 82
1.7902063 -1.0656912 0.81984454 96 91 87
1.8052946 -1.061998 0.81664824 81 81 73
1.8206508 -1.0685132 0.81324971 103 103 93
1.7303327 -1.0534321 0.81861937 87 82 76
1.781764 -1.0581315 0.81461781 93 90 83
1.7001022 -1.0455 0.8183791 89 85 76
1.7313216 -1.0444474 0.81296611 88 86 74
1.7717527 -1.0450296 0.81543636 86 86 76
1.7881645 -1.0442852 0.818847 106 105 100
1.8053428 -1.0431795 0.81660378 100 103 96
1.8158873 -1.0471057 0.81316072 106 103 96
1.7323856 -1.0366099 0.81953156 103 102 97
1.7784077 -1.0383654 0.81374741 97 96 91
1.7053807 -1.0284165 0.81943148 100 101 93
1.7366444 -1.0270104 0.813981 99 100 92
1.7861199 -1.0229421 0.81784844 103 104 99
1.805159 -1.0234919 0.81355608 105 108 101
1.7362465 -1.0062499 0.81231529 101 102 94
1.7869678 -1.0032729 0.81818026 105 106 101
1.8034326 -1.0044179 0.81560218 99 104 98
1.7728176 -0.98926574 0.81900424 111 108 103
1.784919 -0.98202431 0.81717998 102 104 101
1.8004708 -0.98396468 0.81418896 101 106 99
1.715525 -0.97359371 0.81984085 103 104 98
1.7857655 -0.96238661 0.81751126 104 109 105
1.7179539 -0.95475531 0.81951988 108 109 103
1.7837129 -0.94123238 0.81650943 122 128 124
1.7489771 -0.93136024 0.81235117 113 114 108
1.786981 -0.93654925 0.81960273 138 144 142
1.7816575 -0.92014098 0.81550658 66 71 65
1.7572126 -0.9151786 0.81469917 35 38 31
1.7846515 -0.91747159 0.81912637 38 44 44
1.7950295 -0.90453267 0.81750971 132 137 133
1.7625759 -0.89742905 0.81570876 74 79 72
1.7795993 -0.89911258 0.8145026 108 115 108
1.79338 -0.88485098 0.8186692 93 95 94
1.7679471 -0.87961698 0.81671721 104 107 100
1.7804416 -0.87956941 0.81483233 111 117 113
1.8007591 -0.871369 0.81392264 135 137 132
1.7704296 -0.86036205 0.81638914 88 89 84
1.7841886 -0.86141682 0.81649733 47 51 50
1.8008071 -0.85260308 0.8138783 55 60 53
1.7729123 -0.84110701 0.81606108 119 120 115
1.7879382 -0.84320146 0.81816328 137 139 136
1.7958376 -0.83149761 0.81155354 90 93 86
1.7833891 -0.82474011 0.8188042 49 53 49
1.87657 -0.82803249 0.81828833 103 104 98
1.9077177 -0.8214165 0.81173414 103 104 96
1.7928749 -0.81141204 0.81014109 119 118 113
1.7798996 -0.80819499 0.8198328 85 91 89
1.7858671 -0.80565423 0.8177371 64 67 62
1.8213567 -0.80501735 0.81403142 99 101 96
1.915964 -0.80546045 0.81589389 106 107 99
1.785435 -0.79024708 0.81749105 71 76 72
1.7775732 -0.78931689 0.81935292 82 88 86
1.7878456 -0.78490406 0.81822526 138 139 134
1.8286668 -0.78962046 0.81795514 100 101 95
1.9231807 -0.78889275 0.81961906 102 105 98
1.7772938 -0.77139592 0.81966865 33 39 35
1.7867126 -0.77266514 0.81872499 86 88 85
1.7929705 -0.77404815 0.81005275 100 105 98
1.9492078 -0.77882183 0.81009132 100 98 86
1.7913185 -0.76477671 0.81948638 98 99 93
1.9543622 -0.76093692 0.81287295 101 99 87
1.7770144 -0.75347495 0.81998432 149 156 149
1.7879844 -0.7550205 0.81995833 137 142 138
1.7930183 -0.75536621 0.81000859 104 107 100
1.7921636 -0.74517053 0.81981713 104 105 99
1.9524456 -0.74030709 0.81269813 105 103 91
1.7960771 -0.73793054 0.81133229 100 105 98
2.0035505 -0.73141849 0.81036288 105 106 101
1.7981324 -0.72002679 0.81219995 106 109 100
1.9535509 -0.72075945 0.81378955 102 102 90
1.7738105 -0.71331048 0.81959319 91 95 90
1.7844701 -0.7171905 0.81963778 101 103 98
1.9999055 -0.7154094 0.81299174 102 101 96
2.0367274 -0.71152771 0.81343102 112 116 115
1.7909384 -0.70481908 0.81913924 109 110 104
1.8011913 -0.70247555 0.81352329 108 111 102
1.9546503 -0.70114923 0.81488055 106 106 94
2.0650964 -0.70402503 0.81001371 111 117 117
1.7736948 -0.69512451 0.81972891 103 105 101
1.8850513 -0.69374996 0.81426275 105 107 104
1.9974233 -0.69977719 0.81609809 100 100 92
2.0305877 -0.69429183 0.81515235 115 117 116
1.7774022 -0.68682593 0.81049299 113 120 113
1.7869077 -0.68486857 0.81077498 107 108 100
1.7917821 -0.68524444 0.81946945 107 108 102
1.8012394 -0.68370956 0.81347895 108 109 101
1.9069575 -0.68588483 0.81033778 99 100 94
1.952728 -0.6804567 0.81470519 108 108 96
2.0588548 -0.68650365 0.81176353 113 118 121
1.7743282 -0.67330158 0.81967938 105 106 101
1.8793921 -0.67786354 0.8158493 103 108 104
1.903571 -0.67060918 0.81293565 104 106 101
1.9820102 -0.67961437 0.81399131 96 96 88
1.7788072 -0.66814733 0.81291187 111 116 110
1.873733 -0.66197723 0.81743586 102 107 103
1.84038 -0.65202552 0.81986755 105 111 109
1.8502858 -0.65541041 0.81471235 109 112 103
1.8639976 -0.6531474 0.81003219 118 121 114
1.8954778 -0.65365887 0.81355608 103 105 102
1.9407626 -0.65647054 0.81031179 109 109 97
1.7771549 -0.64843434 0.81407315 119 122 115
1.7918569 -0.64648354 0.81012094 107 110 101
1.8657281 -0.64527082 0.81801081 107 111 110
1.7592459 -0.63450187 0.81406307 105 106 100
1.7917464 -0.63407075 0.81087095 107 108 102
1.8144948 -0.63619387 0.81031919 117 118 110
1.8301287 -0.63477057 0.81936163 102 108 106
1.889738 -0.63754582 0.81516528 109 111 108
2.0436106 -0.63503397 0.81838554 112 120 122
1.7755027 -0.62872136 0.81523448 115 116 108
1.7972764 -0.62829661 0.81112301 107 108 100
1.860076 -0.62940407 0.8195954 106 110 109
1.8804998 -0.6202656 0.81528258 105 110 104
2.0621197 -0.62288797 0.8109206 115 125 126
1.7616748 -0.61566341 0.8137421 108 109 101
1.7894216 -0.6152454 0.81041127 108 111 104
1.8045774 -0.61020124 0.81385219 107 111 103
1.8163981 -0.61639065 0.81729591 105 111 109
1.8220508 -0.61546993 0.81297195 112 113 105
1.9725503 -0.61981189 0.81454366 105 105 97
2.1058722 -0.6178236 0.81270605 114 123 122
1.8132069 -0.6016711 0.8198806 107 113 111
1.8747706 -0.60418224 0.81688881 109 112 105
1.912782 -0.60264957 0.81130427 117 110 100
1.9242916 -0.60797966 0.81801844 120 118 105
2.0627141 -0.60719424 0.81538808 117 125 127
1.8073486 -0.59166157 0.81434953 108 110 103
1.8133507 -0.59800512 0.81112689 107 110 103
1.8229067 -0.59561205 0.81330699 112 113 105
1.8547606 -0.59337991 0.81173432 105 106 100
1.8868144 -0.59565943 0.81194764 106 105 94
1.9747816 -0.59911722 0.81735224 117 117 109
2.0598168 -0.59037977 0.81851727 111 119 121
2.0993955 -0.59964228 0.81452179 117 123 123
1.8130603 -0.58160049 0.81366771 106 109 102
1.8434942 -0.58463562 0.81311846 111 112 104
1.8690412 -0.58809865 0.81849504 110 113 106
1.9136786 -0.58184755 0.81165522 118 114 103
1.9672332 -0.58291239 0.81467253 118 124 120
1.9774723 -0.58655226 0.81074733 117 122 116
2.0426691 -0.58349711 0.81140137 116 122 120
2.089479 -0.58049142 0.81501591 116 125 124
1.7476794 -0.57214963 0.81828928 112 113 107
1.772441 -0.57987195 0.81581903 111 112 104
1.8095587 -0.57368088 0.81685865 108 111 102
1.8135835 -0.57336092 0.8141228 109 110 104
1.8237627 -0.57575411 0.81364197 116 118 107
1.8544627 -0.57654983 0.81434107 108 111 104
1.8610007 -0.57129592 0.81910062 105 110 104
1.8858747 -0.5778228 0.81235147 106 107 97
1.8929949 -0.5756548 0.81387025 107 107 97
1.9388598 -0.57041287 0.81151867 102 103 95
1.9401153 -0.57613152 0.81256419 100 101 93
1.7798084 -0.56249011 0.81776196 109 110 104
1.8552122 -0.56760693 0.81500685 108 109 99
1.8870404 -0.5610773 0.81485701 108 109 98
1.9145752 -0.56104547 0.81200618 114 111 102
1.9669207 -0.56758523 0.81872553 119 125 121
1.8187641 -0.55412275 0.81135261 119 116 107
1.8269315 -0.55727237 0.81865901 107 108 102
1.8865776 -0.55462408 0.81199276 108 110 99
1.9124604 -0.55368847 0.81420606 108 111 104
1.9385535 -0.55075967 0.81186485 106 107 99
1.9481905 -0.55824119 0.81660283 112 113 107
2.0402451 -0.55280012 0.81937027 119 128 127
2.0727251 -0.55951971 0.8128553 118 128 127
1.7822522 -0.54353714 0.81743902 110 111 105
1.8549786 -0.54759848 0.81412804 108 109 98
1.8926287 -0.54124099 0.81504393 111 109 97
1.9154718 -0.54024339 0.81235713 111 108 99
1.9516774 -0.54791409 0.81665415 116 118 115
1.8196173 -0.53432769 0.81168658 114 111 102
1.9443611 -0.53283983 0.81436539 122 123 117
2.0282121 -0.53348958 0.81888193 116 125 124
2.0571737 -0.53902882 0.81111938 116 126 125
1.8516725 -0.52932966 0.8165434 108 111 100
1.8639479 -0.52697432 0.81180459 111 108 96
1.8956904 -0.52235621 0.81630105 115 113 101
1.9399172 -0.5293504 0.81598568 115 116 111
1.9776306 -0.5247097 0.81060106 118 124 122
1.9969356 -0.52979481 0.81637812 115 124 121
2.0139673 -0.52690983 0.81152916 116 122 118
1.8263304 -0.51618028 0.81464702 119 116 107
1.9124577 -0.51838624 0.81104046 109 106 97
1.9316084 -0.51180643 0.81672883 111 112 106
1.9471101 -0.51395869 0.81579024 123 126 119
2.0366166 -0.51834548 0.81084943 120 129 126
1.7905886 -0.50659931 0.81840724 116 117 111
1.8663973 -0.50787467 0.81228787 112 108 97
1.8737179 -0.50841707 0.81517291 120 113 103
1.8987523 -0.50340831 0.81755799 110 108 96
2.0104234 -0.50761366 0.81343585 115 124 121
2.0341675 -0.50050604 0.81071144 119 128 127
1.7373017 -0.49205816 0.81315285 116 117 111
1.8826263 -0.49646631 0.81189328 113 109 100
1.9199079 -0.49341035 0.81604362 110 111 105
1.9466934 -0.49392152 0.81375837 122 126 120
2.038588 -0.49756938 0.81226557 121 127 127
2.0836058 -0.49391133 0.81482077 123 132 131
1.8399305 -0.48029995 0.81865937 111 111 101
1.8996531 -0.48194781 0.81851798 112 109 100
1.9018146 -0.48439756 0.81881493 112 110 98
1.9837581 -0.48496613 0.81298459 112 118 118
2.0100965 -0.48915455 0.81629485 112 121 118
2.0413415 -0.48589754 0.81784391 117 126 125
1.7410463 -0.47393757 0.81484872 115 116 110
1.9139014 -0.47654879 0.81772751 109 110 104
1.9479922 -0.47552937 0.81580633 116 120 114
2.0365667 -0.47581035 0.81208122 120 129 128
2.0838141 -0.47711092 0.81927198 120 129 128
1.8666677 -0.46552855 0.81200957 118 116 104
1.8993529 -0.46269357 0.81885713 107 107 97
1.9018652 -0.46458146 0.81876808 109 107 95
1.9978623 -0.46760634 0.81872427 121 130 127
1.7506549 -0.45727766 0.81930041 117 118 112
1.8364775 -0.45938787 0.81567919 109 109 99
1.9078948 -0.45968723 0.81941146 109 110 102
1.9388529 -0.45357838 0.81456369 122 128 126
1.9492415 -0.45545626 0.81791329 124 126 121
2.0345454 -0.45405138 0.81189686 123 132 131
1.8449495 -0.44137341 0.81799608 109 109 99
1.8990526 -0.44343925 0.81919628 107 109 98
1.992999 -0.44545645 0.81729758 121 129 131
2.0009267 -0.44746152 0.81991529 120 129 126
1.820948 -0.4346548 0.81204087 114 114 106
1.9160368 -0.43534583 0.81244147 124 126 121
1.9519877 -0.43638626 0.81934148 121 127 123
2.0179832 -0.43347973 0.81006604 120 129 126
2.0325239 -0.43229234 0.8117125 119 128 127
2.0418139 -0.4364171 0.81181246 129 136 135
1.8936596 -0.42300206 0.81768304 112 113 105
1.9855287 -0.42391261 0.8117494 123 129 127
1.9910164 -0.42411566 0.8171168 118 128 127
2.0009801 -0.42660582 0.81986594 123 134 130
1.8217999 -0.41489127 0.81237429 111 111 103
1.9110519 -0.4133178 0.81028485 131 133 130
1.9516789 -0.41657552 0.81969047 123 129 127
2.0144455 -0.41426086 0.81199211 120 129 126
2.0442624 -0.41546771 0.81385016 131 139 137
1.7869582 -0.40741938 0.81645727 118 121 114
1.8171003 -0.40095314 0.81401032 128 127 122
1.8599174 -0.40752351 0.81024897 124 121 112
1.8984523 -0.40493065 0.81987458 123 126 119
1.9887981 -0.40462044 0.81613064 124 131 130
1.9980222 -0.40513372 0.81857657 122 128 126
2.0657921 -0.40549582 0.81859374 111 122 126
1.8197137 -0.39449278 0.81139129 116 117 111
1.888687 -0.39062023 0.8132776 122 127 120
1.9148852 -0.39322311 0.81188798 122 126 125
1.9288597 -0.39906657 0.81045496 121 127 123
2.0023537 -0.39346555 0.81136072 125 131 127
2.0436144 -0.39366636 0.81497943 131 138 137
2.093034 -0.39877456 0.81219476 134 140 138
2.135998 -0.39746076 0.81378245 115 126 128
1.7819202 -0.38675213 0.81408852 116 121 115
1.8153956 -0.3806133 0.81520855 129 130 124
1.8581759 -0.38674486 0.81147307 117 118 110
1.951618 -0.38426036 0.81578779 117 123 121
1.9870514 -0.38143408 0.81675518 122 128 126
1.9950727 -0.38562459 0.81595993 123 129 127
2.1262114 -0.38163668 0.81622875 117 127 129
1.8205642 -0.37476072 0.81172419 121 124 117
1.867084 -0.3737123 0.81928509 113 118 111
1.9002466 -0.37247741 0.81680965 121 128 121
2.0020275 -0.37503761 0.81421494 112 121 118
2.0951092 -0.37617093 0.81498933 137 143 141
2.1106002 -0.37412274 0.81602299 128 138 137
1.7827535 -0.36741874 0.81441474 121 126 120
1.8197188 -0.36126891 0.81885862 129 131 126
1.9524511 -0.3682068 0.81627071 118 127 124
1.9920028 -0.36130109 0.81944436 123 132 131
2.0039108 -0.36709997 0.81946886 124 133 132
1.8243554 -0.35560066 0.81337458 124 127 120
1.835477 -0.35429543 0.81559461 115 120 114
1.9931488 -0.35513693 0.81449556 121 130 127
2.0931604 -0.35291642 0.81635928 136 145 142
2.1071305 -0.35567945 0.81918824 128 140 138
1.9467804 -0.34935901 0.81738639 123 132 129
1.988029 -0.34727439 0.81020755 124 130 128
1.9981822 -0.34266108 0.81842881 127 136 135
2.0244386 -0.34525627 0.81097507 126 136 135
1.9411117 -0.33061498 0.81848603 120 129 126
1.9842732 -0.33540234 0.81475079 122 131 128
2.0390959 -0.3322486 0.81204259 125 134 131
2.1149685 -0.33318031 0.811396 121 132 134
1.9982355 -0.32183686 0.81837958 129 135 133
2.0253856 -0.3239522 0.81198877 125 134 133
2.0912113 -0.32966197 0.81772923 135 146 142
1.9786065 -0.3163237 0.81595457 125 131 129
2.0418212 -0.31199118 0.81342876 124 133 132
2.1129866 -0.31837991 0.81336319 125 135 136
1.9982888 -0.30101264 0.81833035 126 132 130
2.0273154 -0.30272648 0.8134011 128 137 136
2.085252 -0.30592382 0.81766462 139 148 145
2.1395037 -0.30370057 0.81352645 120 131 133
1.9262313 -0.2906186 0.81656849 128 134 134
1.9697361 -0.29689002 0.81616306 127 133 131
2.0414975 -0.29121459 0.81379473 122 131 128
2.1080201 -0.29939616 0.81255466 130 142 140
2.0013537 -0.28061578 0.81952083 127 133 131
2.0292375 -0.28141713 0.81481278 126 135 132
2.066278 -0.28083318 0.81292486 139 148 145
2.1294432 -0.28743362 0.81604117 123 134 136
2.1687994 -0.2887553 0.810835 122 133 135
1.9300772 -0.2702302 0.81817651 131 140 139
1.9608687 -0.27762234 0.81634581 125 131 131
2.0216098 -0.27735814 0.81979537 141 147 145
2.0381258 -0.27001333 0.81313884 130 139 138
2.0902877 -0.27864891 0.81032139 131 141 140
2.1585636 -0.27220511 0.81339359 122 133 135
1.9962254 -0.26441383 0.81915599 127 133 133
2.1099145 -0.26996124 0.81503534 123 134 136
1.9530723 -0.25865284 0.8168323 128 134 132
1.9650513 -0.25339723 0.81154829 127 136 133
2.004559 -0.25666744 0.81807631 136 142 141
2.0301652 -0.25990391 0.81582469 130 139 136
2.0802174 -0.25908828 0.81098342 134 143 142
2.0963638 -0.25333959 0.81621498 126 137 139
2.1412554 -0.25481588 0.81336522 125 136 138
1.9309752 -0.24939665 0.818528 131 140 137
1.9630117 -0.23185684 0.81067932 136 145 142
2.0014606 -0.23890434 0.81942213 128 137 134
2.0281303 -0.2379985 0.81563908 131 140 137
2.0669248 -0.23919219 0.81038719 131 140 139
2.0863633 -0.23717016 0.81871468 123 137 138
1.9512721 -0.22759628 0.819956 141 147 145
1.9898351 -0.22968116 0.8120681 141 147 145
2.0601394 -0.22014409 0.81228948 136 145 144
2.1208496 -0.22182173 0.81846595 123 137 138
1.9668779 -0.21101683 0.81226331 135 144 143
2.001514 -0.21804862 0.81937289 128 137 134
2.0300341 -0.21649055 0.81704915 129 140 136
2.050132 -0.20076072 0.81293368 133 142 141
1.977644 -0.19078428 0.81671321 139 148 147
1.9985553 -0.19689158 0.81808418 133 142 139
2.0279951 -0.19454329 0.81686318 131 142 138
2.0078712 -0.18643546 0.81068963 132 141 140
2.0465686 -0.18204814 0.81609404 132 142 141
2.0676403 -0.1887141 0.8103174 129 139 138
2.0888338 -0.18378079 0.81186503 125 137 135
2.1399469 -0.18843406 0.81845242 126 136 138
2.1737046 -0.18740499 0.81057858 128 139 141
1.985462 -0.17008606 0.81993824 139 145 145
1.9945924 -0.17570759 0.81638247 131 140 137
2.0146959 -0.1722205 0.81009465 131 140 139
2.0259564 -0.17259608 0.81667727 130 139 136
2.1746955 -0.17128289 0.81738627 128 139 143
2.221034 -0.17085642 0.81334901 123 134 138
1.9646412 -0.16727164 0.81787121 131 140 139
1.9842323 -0.16283238 0.81600624 147 156 155
2.0075424 -0.16786222 0.81356627 124 134 133
2.0366788 -0.16449293 0.81246334 146 155 154
2.0925839 -0.16525835 0.81791443 134 146 144
1.9916334 -0.15468708 0.81509399 135 144 143
2.0232263 -0.15085948 0.81487262 137 146 145
2.2102289 -0.15338534 0.81604993 123 137 140
1.9753916 -0.14021043 0.8147049 149 158 157
2.0072136 -0.14928898 0.81644303 129 139 138
2.026794 -0.14128444 0.81090456 134 143 142
2.0331404 -0.14530706 0.8143062 125 134 133
2.0856266 -0.14572769 0.81986493 131 143 141
1.9983763 -0.13026416 0.81675625 131 140 139
2.1948535 -0.13562715 0.81711161 124 138 141
1.9803976 -0.12689894 0.81779104 140 149 148
2.0247033 -0.12744893 0.81440991 135 144 143
2.0712478 -0.12569821 0.81892556 131 143 143
1.9497744 -0.11068375 0.8179872 133 143 142
1.9655679 -0.11769678 0.81302077 149 158 157
1.9878355 -0.11640321 0.81479692 133 142 139
1.9916685 -0.11149754 0.81768787 135 144 143
2.177248 -0.117814 0.8173399 128 142 145
1.9714447 -0.10506581 0.81405079 137 147 146
2.0174983 -0.10720225 0.81119156 139 148 147
2.0280571 -0.10539026 0.81648731 136 146 146
2.0611451 -0.10605234 0.81962764 139 149 148
2.1585765 -0.10005295 0.81713915 135 146 148
1.9637134 -0.095570549 0.8143242 148 158 157
1.9892159 -0.092998177 0.81989467 133 142 141
1.994553 -0.096074015 0.81611562 135 146 142
1.9693956 -0.083745688 0.81317806 141 151 150
2.0281138 -0.08297801 0.81403178 130 140 139
2.1377296 -0.082325578 0.81609136 129 140 142
1.9581994 -0.073976129 0.8198325 135 144 143
1.9658334 -0.073512688 0.81712896 150 160 159
1.9972022 -0.075527728 0.81576556 134 143 142
2.016778 -0.07250876 0.81365776 139 148 147
1.9732714 -0.0626854 0.81476575 144 154 153
2.0154135 -0.063726112 0.81032377 142 151 150
2.1225843 -0.06493926 0.81709552 138 149 151
1.9998512 -0.05498144 0.81541544 139 148 147
2.0143242 -0.053773865 0.81592208 136 146 145
2.0203006 -0.042183988 0.81228846 142 152 151
2.0604808 -0.041656286 0.81139237 139 148 147
2.1119432 -0.047733784 0.81975543 135 146 148
2.0025003 -0.034435153 0.81506538 136 145 144
2.0108104 -0.035077497 0.81786197 135 145 144
2.021235 -0.02051124 0.81265414 143 155 153
2.1504073 -0.027308524 0.81994188 139 150 152
1.9949112 -0.013866767 0.810552 131 141 140
2.0041151 -0.01646547 0.81883276 139 149 148
2.0583973 -0.019228101 0.81120235 139 148 147
2.03088 -0.00031190738 0.81686026 141 151 150
2.064537 -0.0026718676 0.81354856 152 162 161
2.0182104 0.0011662617 0.81141853 145 157 157
2.0911055 0.015023828 0.81714678 144 154 155
2.1487463 0.011938334 0.81173337 138 152 155
2.0665503 0.020686507 0.81634551 158 167 166
2.1377766 0.029675126 0.81447536 138 152 155
2.0839446 0.035125673 0.81915426 142 152 153
2.1257963 0.037883937 0.81339526 144 156 156
2.0033815 0.042235918 0.81000835 139 149 148
2.0261803 0.041051604 0.81621653 141 151 150
2.0695465 0.044164926 0.8195048 154 165 161
2.1300743 0.047474384 0.81842619 136 150 153
2.0654631 0.055011451 0.81675327 146 156 157
2.1184952 0.058379769 0.81544209 140 154 154
2.1696231 0.052336216 0.81151313 141 155 158
1.9718167 0.064244971 0.8140313 150 162 162
2.0197783 0.061564703 0.81451911 146 156 157
2.0626452 0.067279041 0.81909031 158 169 165
2.0583408 0.075004995 0.81874996 147 159 159
2.1111941 0.078875542 0.81748903 147 159 159
2.1660361 0.070631504 0.81706512 141 155 158
2.2184675 0.076363981 0.81401151 139 154 157
1.9727268 0.085361734 0.81438756 151 161 160
2.0123651 0.081914909 0.81247592 146 156 157
2.15482 0.088766754 0.8198688 139 153 156
2.0023148 0.094787128 0.8186332 148 158 159
2.1038928 0.099371314 0.81953585 147 159 159
2.2069941 0.09491539 0.81687951 139 154 157
2.0159287 0.10896137 0.81043488 153 162 161
1.9935992 0.11608382 0.81898087 136 148 148
2.0053813 0.11581409 0.81982213 133 143 142
2.0508437 0.11332947 0.81896138 161 171 170
2.106024 0.11876806 0.81017244 150 160 161
2.1880021 0.11310679 0.81704229 141 156 159
2.0318811 0.12211731 0.81273466 143 155 155
2.0277739 0.13119802 0.81521356 144 154 153
2.0363555 0.13874657 0.81132436 144 154 153
2.0449533 0.13622929 0.81888962 158 167 164
2.0554519 0.13858455 0.81451607 146 158 158
2.02337 0.14235371 0.81540036 137 149 148
2.0893629 0.142276 0.8108415 143 153 154
2.1143413 0.14339249 0.81259716 140 151 152
2.0195951 0.15886815 0.81515294 142 154 152
2.0356576 0.15337653 0.81839013 145 157 157
2.1942539 0.15616429 0.8111105 144 155 157
2.0181718 0.16460775 0.81633419 147 156 155
2.0464537 0.16073993 0.81529629 149 159 158
2.0649846 0.16207893 0.81896782 147 159 157
2.0974524 0.1646696 0.81392348 147 157 156
2.1048017 0.16479081 0.81239104 154 164 165
2.1182272 0.16621169 0.81618088 144 156 156
2.0160942 0.17735803 0.81712371 147 159 157
2.1826763 0.17488396 0.81400442 147 158 160
2.0178504 0.18521637 0.81669718 130 138 140
2.0584671 0.18516874 0.81162834 141 151 150
2.0628777 0.18475808 0.81877565 151 163 163
2.097466 0.18601313 0.81416571 148 160 160
2.1160691 0.189445 0.81598407 148 160 160
2.1710987 0.19360363 0.81689835 144 158 159
2.0175292 0.20582499 0.81706023 147 157 158
2.0636644 0.20643161 0.81782305 142 153 153
2.0820038 0.20548889 0.81343389 151 163 163
2.0509079 0.21391785 0.81749421 139 151 149
2.1061676 0.21188395 0.81277716 144 156 156
2.0232799 0.22709602 0.81949371 148 158 159
2.0598931 0.22393726 0.81820714 141 153 153
2.0504584 0.23426247 0.81589878 140 152 150
2.0625281 0.23055542 0.81993794 147 159 159
2.104017 0.23503363 0.81258106 153 165 165
2.0479627 0.24158925 0.81778288 143 157 157
1.9800082 0.25429595 0.81723762 156 168 168
2.0154676 0.25899005 0.81016362 152 164 164
2.0381432 0.25932768 0.81794626 143 157 157
2.0500011 0.25454465 0.81430429 143 155 153
2.1018665 0.2581833 0.81238496 151 163 163
2.1575525 0.2562753 0.81094629 148 162 163
2.0057557 0.26202461 0.81947643 152 166 167
2.0437131 0.26693711 0.81383801 147 161 161
1.9809185 0.27541274 0.81759387 157 169 169
2.0293801 0.27704695 0.81839371 145 159 159
2.138649 0.27427888 0.81122875 144 158 159
2.0058091 0.28291184 0.81942707 148 162 163
2.0163934 0.28047398 0.81052607 149 163 163
2.0367355 0.28723592 0.81097323 148 164 163
2.0584414 0.28021532 0.81262952 165 175 174
2.1035759 0.28185561 0.81369281 156 168 168
1.9818287 0.29652947 0.81795013 159 171 171
2.0164077 0.29388794 0.81755674 142 156 156
2.1270058 0.29310483 0.81413913 151 165 166
2.0058627 0.30379903 0.81937766 148 164 164
2.0213034 0.30254057 0.81249964 143 159 158
2.0367899 0.30844867 0.8109231 147 163 162
2.0525563 0.30303949 0.81259543 165 177 177
2.1429458 0.30471617 0.81116331 153 163 162
1.9867234 0.31827027 0.81996036 158 170 170
2.004493 0.31066841 0.81699759 149 161 159
2.1194456 0.31250703 0.81856751 152 166 167
2.0034597 0.32674873 0.81913728 150 166 164
2.0252206 0.32453495 0.81407177 151 165 165
2.036844 0.32966146 0.81087291 153 169 168
2.050596 0.32642978 0.81397337 162 176 176
2.099267 0.32823861 0.81329989 158 168 169
2.1352797 0.32623628 0.81331247 157 167 166
2.0059695 0.34557351 0.8192789 150 166 165
2.0261497 0.34609231 0.81443548 157 168 170
2.0486355 0.34982008 0.81535131 164 180 177
2.131552 0.34836528 0.81694883 155 165 164
2.1407664 0.34048402 0.8110404 153 164 166
2.030308 0.35686946 0.81291014 153 165 165
2.043931 0.35208219 0.81363666 152 168 167
2.054925 0.35737947 0.81239986 158 170 170
2.0971127 0.35143012 0.81310332 156 166 167
2.0270789 0.3676497 0.81479919 162 172 174
2.1238718 0.36992478 0.81910193 161 171 170
2.0354996 0.37406155 0.81515992 160 173 173
2.05583 0.37707967 0.81569183 153 167 167
2.0988023 0.37531155 0.81440932 155 163 165
2.1961718 0.37477314 0.81525683 150 164 167
1.9818928 0.38227314 0.81708121 148 164 164
2.0147719 0.38862878 0.81066978 144 159 162
2.028008 0.38920707 0.81516284 157 168 170
2.0899758 0.38173869 0.81027532 155 171 171
2.0343542 0.39524016 0.81732225 159 171 170
2.0470541 0.39523548 0.81474179 155 167 167
2.0966442 0.39854485 0.81421244 159 168 167
2.1880038 0.39518332 0.81975627 156 167 169
1.987601 0.40269905 0.81804514 141 159 161
2.0573001 0.40002024 0.81414872 156 170 170
2.0633531 0.40595168 0.81054282 155 169 169
2.0980678 0.40505642 0.81335509 153 169 169
2.1568568 0.40106913 0.81326944 162 172 171
2.0278869 0.4107258 0.81483078 141 158 159
2.0339706 0.41815299 0.81627452 172 184 184
